# .PCD v0.7 - Point Cloud Data file format
VERSION 0.7
FIELDS x y z
SIZE 4 4 4
TYPE F F F
COUNT 1 1 1
WIDTH 159
HEIGHT 1
VIEWPOINT 0 0 0 1 0 0 0
POINTS 159
DATA ascii
0.0054000034 0.0045599993 0.0061960802
-0.026088001 0.054600004 0.0018072652
-0.029688001 -0.0012000001 -0.010552734
-0.0052689225 0.052026063 -0.0053927368
-0.0039599971 -0.0012000001 0.0075622243
-0.0056880014 0.053683288 0.0018072635
-0.028386137 0.052928369 -0.0053927349
0.0039600022 -0.0012000001 -0.007720232
-0.027515797 -0.0012000001 -0.0029805312
-0.008088002 0.054600004 -0.0047927368
-0.0046019065 0.051898424 0.00072116981
0.0020772114 0.0045599993 0.0097853914
-0.0050880015 0.019366192 -0.011109357
0.0053507881 0.0045599993 -0.0056989817
0.0049629081 -0.0012000001 0.0079153925
-0.028488003 0.03005179 0.0017713339
-0.0057739653 0.053757764 -0.0047927368
-0.008088002 0.054600004 0.0018072637
-0.026088001 0.054600004 -0.004792735
-0.008088002 0.054000005 -0.0053927368
0.0049629081 0.0045599993 0.0079153925
-0.029088 0.01936619 -0.011109354
-0.004461919 -0.00063581549 -0.011116918
0.004248552 0.0045599993 -0.0075206249
0.005400002 0.0045599993 -0.0051578162
-0.004542694 0.051625136 -0.0047927373
0.0014804197 0 0.0097818682
-0.029637977 0.051598072 0.00065729162
-0.029688001 -0.0012000001 -0.005152734
-0.0049703093 0.052800007 -0.0047927368
-0.0068567283 0.054382898 0.0018072636
-0.02840204 0.053757764 -0.004792735
-0.0061596381 0.053298138 -0.0053927368
-0.0068567288 0.054382898 -0.0047927368
-0.026088001 0.054000005 -0.0053927349
-0.0049709016 0.052801032 0.0010901651
0.0052034892 0.0045599993 0.0073692314
0.0037577604 0.0045599993 0.0092172036
-5.5897795e-05 0.0045599993 -0.009604957
-0.0039599985 -0.0012000001 -0.010552736
-0.029088 0.018372614 -0.011152734
-0.0050880015 0.020352205 -0.010979546
0.0049667116 -0.0012000001 -0.0067108767
-0.0051335776 0.051520951 -0.0053927368
0.0049667107 0.0045599993 -0.0067108767
-0.0045429063 0.051626347 0.00066216924
0.0039600036 -0.0012000001 0.0090737585
0.00032934637 0 0.0094819861
-0.028488003 0.053683285 0.0018072653
-0.029688003 0.051000003 -0.004792735
-0.029688003 0.03020842 0.00058160047
-0.0053302413 0.053314041 -0.0047927368
-0.0047051082 0.052231278 -0.0047927373
-0.0074628671 0.054545309 0.0018072637
-0.0062880013 0.054117694 0.0018072636
-0.027319277 0.054382898 0.0018072653
-0.0057898667 0.052928369 -0.0053927368
-0.0074628675 0.054545309 -0.0047927368
-0.0070619411 0.053819086 -0.0053927368
-0.027114064 0.053819086 -0.0053927349
-0.0053319698 0.053316098 0.0014512332
0.0053505343 0.0045599993 0.0067908289
0.0052034897 -0.0012000001 0.0073692314
-0.0049419552 0.052749973 0.0010612179
0.0042299721 0.0045599993 0.0088522527
0.0032317457 0.0045599993 0.009499127
-0.0020388439 0.0045599993 -0.010361733
-5.5897795e-05 0 -0.009604957
0.00188916 0.0045599993 -0.0087555246
-0.0036220436 -0.0008620423 -0.010890692
-0.0050880015 0.018372616 -0.011152736
-0.029088 -0.00060000003 -0.011152734
-0.029688001 0.018372614 -0.010552734
0.0037920019 0.0045599993 -0.0078153219
-0.029088 0.020352203 -0.010979543
0.0046444512 -0.0012000001 -0.007148406
0.005400002 -0.0012000001 -0.0051578162
0.0046444507 0.0045599993 -0.007148406
0.0052047619 0.0045599993 -0.0062223948
0.00089241122 0 0.0096797962
-0.029205697 0.052800007 -0.004792735
-0.028488003 0.0306 0.0018072653
-0.029688003 0.051000003 0.00060726551
-0.029688003 0.030129237 -0.0054358114
-0.0055003548 0.053502817 0.001619618
-0.0051949546 0.053142499 0.0013142164
-0.0057739648 0.053757764 0.0018072636
-0.0062880018 0.054117694 -0.0047927368
-0.026713135 0.054545309 0.0018072652
-0.027319277 0.054382898 -0.004792735
-0.027888002 0.054117694 0.0018072653
-0.0054899254 0.052500006 -0.0053927368
-0.0075670569 0.053954426 -0.0053927368
-0.0065880008 0.05359808 -0.0053927368
-0.028016364 0.053298138 -0.0053927349
-0.026713135 0.054545309 -0.004792735
-0.0047055879 0.052232597 0.00082485162
0.0054000034 -0.0012000001 0.0061960802
-0.0047440021 0.052333303 0.00086326536
0.0046354015 0.0045599993 0.0084143039
0.0039857174 0 0.0090566147
0.0026663833 0.0045599993 0.0096902736
0.0037577606 0 0.0092172036
-0.0020388439 0 -0.010361733
0.00188916 0 -0.0087555246
-0.0040552695 0.0045599993 -0.011024164
-0.0038384891 -0.00079476478 -0.010957974
-0.0049241195 -0.00060000003 -0.011152736
0.0039652195 0 -0.0077171321
-0.026608948 0.053954426 -0.0053927349
-0.029042428 0.051520951 -0.0053927349
-0.029688001 0.020248014 -0.010388657
0.004248552 -0.0012000001 -0.0075206249
0.0053507881 -0.0012000001 -0.0056989817
0.0014804197 0.0045599993 0.0097818682
-0.028845763 0.053314038 -0.004792735
-0.029204564 0.052801959 0.0010907057
-0.02963331 0.051625136 -0.004792735
-0.029684752 0.051152952 0.00061051617
-0.029688003 0.0306 0.00060726551
-0.029688003 0.029099999 0.00020534212
-0.027888002 0.054117694 -0.004792735
-0.02840204 0.053757764 0.0018072653
-0.027588002 0.05359808 -0.0053927349
0.0053505343 -0.0012000001 0.0067908289
0.004635402 -0.0012000001 0.0084143039
0.0042299731 -0.0012000001 0.0088522527
0.0020772114 0 0.0097853914
0.0039857174 -0.0012000001 0.0090566147
-0.0035999992 0 -0.010883773
0.0037920026 0 -0.0078153219
-0.0044879997 0.0052136355 -0.011120867
-0.0040552695 -0.00072857214 -0.011024164
-0.0050880006 0.0069599994 -0.011152736
-0.0048502376 -0.00060091104 -0.011151825
-0.028686078 0.052500006 -0.0053927349
-0.029688001 0.019313894 -0.010511636
0.0039652195 -0.0012000001 -0.0077171321
0.0052047619 -0.0012000001 -0.0062223948
0.00089241122 0.0045599993 0.0096797962
-0.029134182 0.052918542 0.0011610857
-0.029470896 0.052231275 -0.004792735
-0.02963325 0.05162549 0.00066201971
-0.029688003 0.02945195 0.0003789044
0.0032317459 0 0.009499127
-0.0035999992 -0.00084000098 -0.010883773
-0.0044849627 0.0045599993 -0.011120421
-0.0049241195 0.0059820288 -0.011152736
-0.028907079 0.052026063 -0.0053927349
-0.028836327 0.053325236 0.0014589406
-0.029365845 0.052488547 0.00092942471
-0.029532848 0.052045498 0.00076242164
-0.029688003 0.029823544 0.00050504348
0.0026663833 0 0.0096902736
-0.0047053313 0.0055102482 -0.011144749
-0.029470133 0.052233372 0.00082513527
-0.0045832763 0.005329784 -0.011133311
-0.0048263357 0.00573848 -0.011151143
-0.0044879997 0.0045599993 -0.011120867
