# .PCD v0.7 - Point Cloud Data file format
VERSION 0.7
FIELDS x y z
SIZE 4 4 4
TYPE F F F
COUNT 1 1 1
WIDTH 158
HEIGHT 1
VIEWPOINT 0 0 0 1 0 0 0
POINTS 158
DATA ascii
-0.0054000029 0.0045599993 -0.0061960807
0.026088001 0.054600004 -0.001807263
0.029688001 -0.0012000001 0.010552736
0.0052689221 0.052026063 0.0053927372
0.0039599976 -0.0012000001 -0.0075622238
0.0056880014 0.053683288 -0.001807263
0.028386137 0.052928369 0.0053927372
-0.0039600031 -0.0012000001 0.0077202315
0.027515797 -0.0012000001 0.0029805333
0.008088002 0.054600004 0.0047927373
0.0046019065 0.051898424 -0.0007211694
-0.0020772105 0.0045599993 -0.0097853914
0.0050880006 0.019366192 0.011109357
-0.0053507886 0.0045599993 0.0056989812
-0.0049629076 -0.0012000001 -0.0079153934
0.028488003 0.03005179 -0.0017713314
0.0057739648 0.053757764 0.0047927373
0.008088002 0.054600004 -0.001807263
0.026088001 0.054600004 0.0047927373
0.008088002 0.054000005 0.0053927372
-0.0049629076 0.0045599993 -0.0079153934
0.029088 0.01936619 0.011109357
0.004461918 -0.00063581549 0.011116918
-0.0042485525 0.0045599993 0.0075206244
-0.0054000029 0.0045599993 0.0051578153
0.004542694 0.051625136 0.0047927373
-0.0014804188 0 -0.0097818682
0.029637977 0.051598072 -0.00065728906
0.029688001 -0.0012000001 0.0051527368
0.0049703089 0.052800007 0.0047927373
0.0068567283 0.054382898 -0.001807263
0.02840204 0.053757764 0.0047927373
0.0061596376 0.053298138 0.0053927372
0.0068567283 0.054382898 0.0047927373
0.026088001 0.054000005 0.0053927372
0.0049709016 0.052801032 -0.0010901646
-0.0053505339 0.0045599993 -0.0067908294
-0.0037577597 0.0045599993 -0.0092172036
5.5896955e-05 0.0045599993 0.009604957
0.0039599976 -0.0012000001 0.010552736
0.029088 0.018372614 0.011152736
0.0050880006 0.020352205 0.010979546
-0.0049667121 -0.0012000001 0.0067108762
0.0051335772 0.051520951 0.0053927372
-0.0049667116 0.0045599993 0.0067108762
0.0045429063 0.051626347 -0.00066216878
-0.0039600031 -0.0012000001 -0.0090737585
-0.00032934552 0 -0.0094819861
0.028488003 0.053683285 -0.001807263
0.029688003 0.051000003 0.0047927373
0.029688003 0.03020842 -0.00058159785
0.0053302408 0.053314041 0.0047927373
0.0047051082 0.052231278 0.0047927373
0.0074628671 0.054545309 -0.001807263
0.0062880013 0.054117694 -0.001807263
0.027319277 0.054382898 -0.001807263
0.0057898662 0.052928369 0.0053927372
0.0074628671 0.054545309 0.0047927373
0.0070619402 0.053819086 0.0053927372
0.027114064 0.053819086 0.0053927372
-0.0052034883 0.0045599993 -0.0073692319
0.0053319698 0.053316098 -0.0014512327
-0.0054000029 -0.0012000001 -0.0061960807
-0.0042299717 0.0045599993 -0.0088522527
-0.003231745 0.0045599993 -0.009499127
0.002038843 0.0045599993 0.010361733
5.5896955e-05 0 0.009604957
-0.0018891607 0.0045599993 0.0087555246
0.0036220429 -0.0008620423 0.010890692
0.0050880006 0.018372616 0.011152736
0.029088 -0.00060000003 0.011152736
0.029688001 0.018372614 0.010552736
-0.0037920026 0.0045599993 0.0078153219
0.029088 0.020352203 0.010979546
-0.0046444517 -0.0012000001 0.0071484051
-0.0054000029 -0.0012000001 0.0051578153
-0.0046444512 0.0045599993 0.0071484051
-0.0052047623 0.0045599993 0.0062223943
-0.00089241035 0 -0.0096797962
0.029205697 0.052800007 0.0047927373
0.028488003 0.0306 -0.001807263
0.029688003 0.051000003 -0.00060726289
0.029688003 0.030129237 0.0054358141
0.0055003548 0.053502817 -0.0016196176
0.0051949546 0.053142499 -0.0013142159
0.0047440021 0.052333303 -0.00086326496
0.0057739648 0.053757764 -0.001807263
0.0062880013 0.054117694 0.0047927373
0.026713135 0.054545309 -0.001807263
0.027319277 0.054382898 0.0047927373
0.027888002 0.054117694 -0.001807263
0.0054899249 0.052500006 0.0053927372
0.007567056 0.053954426 0.0053927372
0.0065880003 0.05359808 0.0053927372
0.028016364 0.053298138 0.0053927372
0.026713135 0.054545309 0.0047927373
0.0047055879 0.052232597 -0.00082485116
-0.0052034892 -0.0012000001 -0.0073692319
-0.0053505339 -0.0012000001 -0.0067908294
-0.0046354006 0.0045599993 -0.0084143039
-0.0039857165 0 -0.0090566147
-0.0026663824 0.0045599993 -0.0096902736
-0.0037577599 0 -0.0092172036
-0.0018891607 0 0.0087555246
0.002038843 0 0.010361733
0.0040552686 0.0045599993 0.011024164
0.0038384881 -0.00079476478 0.010957974
0.0049241185 -0.00060000003 0.011152736
-0.0039652199 0 0.0077171312
0.026608948 0.053954426 0.0053927372
0.029042428 0.051520951 0.0053927372
0.029688001 0.020248014 0.010388659
-0.004248553 -0.0012000001 0.0075206244
-0.0052047623 -0.0012000001 0.0062223943
-0.0014804188 0.0045599993 -0.0097818682
0.028845763 0.053314038 0.0047927373
0.029204564 0.052801959 -0.0010907032
0.02963331 0.051625136 0.0047927373
0.029684752 0.051152952 -0.00061051361
0.029688003 0.0306 -0.00060726289
0.029688003 0.029099999 -0.00020533954
0.0049419552 0.052749973 -0.0010612174
0.027888002 0.054117694 0.0047927373
0.02840204 0.053757764 -0.001807263
0.027588002 0.05359808 0.0053927372
-0.0046354011 -0.0012000001 -0.0084143039
-0.0042299717 -0.0012000001 -0.0088522527
-0.0020772105 0 -0.0097853914
-0.0039857165 -0.0012000001 -0.0090566147
-0.003792003 0 0.0078153219
0.0035999985 0 0.010883773
0.0044879988 0.0052136355 0.011120867
0.0040552686 -0.00072857214 0.011024164
0.0048502367 -0.00060091104 0.011151825
0.028686078 0.052500006 0.0053927372
0.029688001 0.019313894 0.010511638
-0.0039652199 -0.0012000001 0.0077171312
-0.0053507886 -0.0012000001 0.0056989812
-0.00089241035 0.0045599993 -0.0096797962
0.029134182 0.052918542 -0.0011610832
0.029470896 0.052231275 0.0047927373
0.02963325 0.05162549 -0.00066201721
0.029688003 0.02945195 -0.00037890178
-0.0032317452 0 -0.009499127
0.0035999985 -0.00084000098 0.010883773
0.0044849617 0.0045599993 0.011120421
0.0049241185 0.0059820288 0.011152736
0.028907079 0.052026063 0.0053927372
0.028836327 0.053325236 -0.001458938
0.029365845 0.052488547 -0.00092942215
0.029532848 0.052045498 -0.00076241908
0.029688003 0.029823544 -0.00050504087
-0.0026663824 0 -0.0096902736
0.0047053304 0.0055102482 0.011144749
0.029470133 0.052233372 -0.00082513265
0.0045832759 0.005329784 0.011133311
0.0048263348 0.00573848 0.011151143
0.0044879988 0.0045599993 0.011120867
