# .PCD v0.7 - Point Cloud Data file format
VERSION 0.7
FIELDS x y z
SIZE 4 4 4
TYPE F F F
COUNT 1 1 1
WIDTH 1307
HEIGHT 1
VIEWPOINT 0 0 0 1 0 0 0
POINTS 1307
DATA ascii
0.038832467 0.038461238 0.027446223
0.11858372 -0.025704553 -0.039646413
0.021294001 -0.025651362 -0.03968085
0.00062999892 -0.032379616 -0.03441108
0.039672285 -0.027101483 -0.038704932
0.020663997 -0.027772849 -0.038226049
0.11858372 0.029699996 -0.036748771
0.12700801 0.026522998 -0.039103609
0.021294003 0.032287858 -0.034497198
0.041116111 0.033882041 -0.032866765
0.021294003 0.037995141 -0.02808792
0.034181725 0.037133172 -0.029217968
0.034573745 0.038559251 -0.027308354
0.025721172 0.039709184 -0.02560748
0.033595838 0.040761191 -0.02389743
0.0047880081 -0.0027676371 0.047168855
0.038154472 -0.00093063165 0.047240831
0.007245 -0.0056106881 0.046915695
0.120708 -0.0079905568 0.046569444
0.030247416 -0.013788425 0.045193374
0.036428917 -0.023535321 0.040971335
0.034142766 -0.024240699 0.040557995
0.11858372 -0.024644487 0.040313911
0.039672285 0.02193944 0.041847616
0.11746439 0.031255223 0.03538252
0.039672289 0.032287847 0.034497201
0.13448453 -0.026523 -0.03909402
0.13412701 -0.029699998 -0.036748778
0.041116104 -0.033882041 -0.032866776
0.14043802 -0.034435805 -0.025261136
0.13953419 -0.037040416 -0.019421995
0.14144841 -0.032862548 -0.024640903
0.14163813 -0.032735761 -0.023624999
0.14186428 -0.031993892 0.023566389
0.14144841 -0.032862552 0.024640899
0.126378 -0.021735001 -0.04195416
0.021294001 -0.018003087 -0.04368582
0.016379999 -0.019932305 -0.042839997
0.13412701 -0.0088830013 -0.046407484
0.120708 -0.015750919 -0.044547398
0.14401799 -0.017634854 -0.043462832
0.120708 -0.0064035407 -0.046814065
0.021294003 -0.0011788011 -0.04723528
0.00062999834 -0.046668272 0.0073915245
0.024444001 -0.047223747 -0.0015750008
0.024569999 -0.047223747 0.0015749962
0.13412701 -0.038945239 -0.019551696
0.021702573 -0.047022648 -0.0046295784
0.023050431 -0.047123156 -0.0034599118
0.020663997 -0.04210005 -0.021451054
0.021294 -0.042586993 -0.020467304
0.021294001 -0.038151987 -0.027874503
0.13412701 -0.033835884 -0.032511853
0.039672285 -0.039627183 -0.025734195
0.13735394 0.0045593232 0.046346664
0.13556933 0.0088829882 0.046274018
0.13828455 -0.013705083 0.043999966
0.137088 -0.013545007 0.044673648
0.0051570046 0.003477941 0.047121916
0.028098002 0.00076082634 0.047243871
0.11858372 0.0031088577 0.047147609
0.137088 -0.0088830097 0.045828968
0.13904504 -0.0044604209 0.045341138
0.008112723 -0.008590241 0.046462558
0.038079817 -0.004107222 0.047071148
0.030398546 -0.010311354 0.046111148
0.12700801 -0.013545008 0.04526693
0.037089512 -0.018494848 0.043479908
0.120708 -0.015750924 0.04454739
0.037461389 -0.021483265 0.042083625
0.033825405 -0.020002786 0.042807132
0.12669362 -0.022050636 0.041789129
0.03139817 -0.022569671 0.041511104
0.020663997 -0.027772855 0.038226046
0.12700801 -0.026523009 0.039103616
0.13545185 -0.026523009 0.038970083
0.13735394 -0.026011271 0.038629204
0.13904504 -0.025446933 0.037791111
0.13957423 -0.037015885 0.019082235
0.13974069 -0.036221221 0.022090169
0.13909744 -0.037033025 -0.020864472
0.13887851 -0.037317194 -0.020055888
0.13945243 -0.037122197 -0.018703917
0.13872762 -0.037605017 0.017149422
0.14062092 -0.034909163 0.023095461
0.14044018 -0.035974264 0.015459389
0.13546722 -0.03719876 0.026350385
0.13735394 -0.031020613 0.03466408
0.13546722 -0.033746276 0.032442927
0.041116104 -0.033882048 0.032866769
0.021294001 -0.031789996 0.034956515
0.020663997 -0.031878181 0.034876112
0.020663997 -0.042100053 0.021451041
0.13412701 -0.038660873 0.021616733
0.020663997 -0.046552479 0.0080888262
0.043102276 -0.046892948 0.0030050341
0.13412701 -0.039060004 0.017149422
0.13412701 0.038364422 -0.023029318
0.034006208 0.046520416 -0.0082712453
0.028486289 0.046725735 -0.0070191366
0.031013733 0.043228261 0.019075632
0.025793239 0.044792801 0.015038853
0.028894978 0.046326917 0.0092940517
0.028068468 0.046039686 0.010625914
0.021294003 0.042448968 0.020752041
0.033488605 0.043384667 0.018717177
0.025845006 0.044214685 0.01666205
0.029796571 0.047172487 0.0027053894
0.033857994 0.047231752 0.0013128109
0.026548393 0.047057893 0.0042564282
0.03280608 0.047087424 0.0039161649
0.031640604 0.047148056 0.0031021102
0.028486289 0.04654099 0.0081546726
0.028065428 0.046412349 0.0088575557
0.033666007 0.046465732 0.0085730851
0.020664003 0.046668272 0.0073915315
0.033653334 0.046967231 0.005161609
0.02726407 0.046867449 0.006000387
0.025721172 0.046758164 0.0067997263
0.028489672 0.047022622 0.0046298578
0.02726407 0.046352468 -0.0091657527
0.033653338 0.046181239 -0.0099927913
0.026894169 0.047173191 -0.0026934787
0.033791397 0.047234032 -0.0012282532
0.029879272 0.04707003 -0.0041200011
0.028065454 0.046826538 -0.0063116984
0.028068427 0.047033653 -0.0045164162
0.032820184 0.046947211 -0.0053406097
0.027093306 0.047249954 6.4432694e-05
0.033562403 0.038738299 0.027053785
0.03355049 0.038955715 0.02673975
0.023690799 0.039920889 0.025276178
0.037352476 0.042035323 0.021577621
0.029546471 0.040514063 0.024314044
0.037760679 0.041895635 0.02184765
0.034438856 0.04158039 0.022441776
0.032995101 0.045774702 0.011714902
0.031479508 0.045005806 0.014388877
0.025989367 0.045261275 0.013563879
0.13546722 0.035686135 0.029517723
0.13546722 0.031417102 0.035068773
0.035817333 0.011529914 0.045821644
0.030411655 0.013095413 0.045399033
0.030042432 0.013981023 0.045134164
0.11858372 0.01429114 0.045036927
0.021294003 0.017901186 0.043727677
0.11858372 0.015750909 0.044547398
0.038372066 0.007079164 0.046716668
0.0076860571 0.0068406146 0.0467522
0.11858372 0.0087637734 0.046430141
0.015519899 0.007997849 0.046568189
0.011077146 0.0091347657 0.046358582
0.030568443 0.010954124 0.045962691
0.037967756 0.010073319 0.046163734
0.12700801 0.02652299 0.039103616
0.021294003 0.025515391 0.039768413
0.12669362 0.022050617 0.041789133
0.120708 0.02305755 0.0412421
0.14144841 -0.028155111 0.031739458
0.14201495 -0.026834685 0.03039179
0.14205121 -0.022413369 0.033558253
0.14010902 -0.013673384 0.042412721
0.13904504 -0.028637728 0.03543438
0.14043802 -0.034435812 0.025261139
0.14043802 -0.024668913 0.036635671
0.14144841 0.03286254 0.024640907
0.14032537 0.035386004 0.022811748
0.14043802 0.033102255 0.028053507
0.13904504 0.032496229 0.031481601
0.038260706 0.0058362046 0.046888169
0.0048025455 0.0027779259 0.047167949
0.0072450005 0.001874155 0.047212809
0.034062177 0.0044546193 0.047039542
0.0059794383 0.0043593477 0.047048464
0.038204446 0.0040693888 0.047074433
0.0072450005 0.005610683 0.046915695
0.038008116 0.0047218879 0.047013465
0.038874395 0.0050410358 0.04698031
0.14043802 0.024668902 -0.036635667
0.14144841 0.01152234 -0.040883251
0.13904504 0.012358947 -0.043851681
0.14043802 0.033102263 -0.028053502
0.14043802 0.027762139 -0.034350995
0.13735394 0.03102061 -0.034664087
0.14144841 0.02372436 -0.035232939
0.13735394 0.029272819 -0.036220204
0.13717352 0.013630503 -0.044611428
0.137088 0.02607356 -0.038721722
0.021294003 0.042448971 -0.020752033
0.029899793 0.04188754 -0.021863125
0.13958882 0.036969025 -0.019323833
0.13957423 0.037016656 0.019062754
0.14023811 0.036222741 -0.015711494
0.13872762 0.03760501 0.017149432
0.13974091 0.036220931 0.02209048
0.13945243 0.037117142 -0.018612344
0.13908868 0.037043832 -0.020840652
0.13887873 0.037316866 -0.020057155
0.13953419 0.036920428 -0.02003625
0.13546722 0.031417109 -0.035068769
0.031640489 0.04569985 -0.012003574
0.027114084 0.045280494 -0.013499604
0.033872154 0.043141149 -0.019271826
0.027114084 0.043792017 -0.017743217
0.032082606 0.044327442 -0.016359719
0.031834386 0.044837236 -0.014905853
0.03381025 0.044882178 -0.01476998
0.11858372 0.023057558 -0.0412421
0.039672285 0.025515394 -0.039768409
0.020664003 0.021451056 -0.04210005
0.12669362 0.022050627 -0.041789129
0.123228 0.021734998 -0.041954156
0.123228 0.014174998 -0.045073614
0.039672285 0.017901191 -0.04372767
0.11858372 0.014843601 -0.044857882
0.039672285 0.016418492 -0.044305697
0.120708 0.012688922 -0.045514315
0.11858372 0.0090041617 -0.046384118
0.021294003 0.0011717813 -0.047235463
0.120708 0.0064035431 -0.046814065
0.120708 0.0079905447 -0.046569437
0.13412701 0.0083304411 -0.046509843
0.13546722 -0.0037553979 -0.046987116
0.13412701 -0.0037644051 -0.047099803
0.13412701 0.0037644005 -0.047099803
0.0258244 0.043136913 -0.019281311
0.020664003 0.033410791 0.033410795
0.03854569 0.038123351 0.027913669
0.039672285 -0.021939443 -0.04184762
0.039672285 -0.025651364 -0.039680853
0.039672285 -0.031820163 -0.034929059
0.12700801 -0.026523 -0.039103616
0.032723218 0.038105361 -0.027938219
0.035182606 0.037774809 -0.028383553
0.03390298 0.039244283 -0.026314419
0.026050048 0.038774982 -0.027001172
0.034016598 0.039775923 -0.025503688
0.03391245 0.0402878 -0.024687147
0.026073912 0.040658858 -0.024071138
0.0049351878 -0.0033542248 0.047130775
0.11858372 -0.0031088765 0.047147609
0.0047880006 -0.0027632506 0.047169119
0.032508001 -0.0004603368 0.047247756
0.013379414 -0.0015894345 0.047223229
0.0060480004 -0.0061117113 0.046853058
0.0060480004 -0.0049456353 0.046990447
0.03827063 -0.0065494939 0.046793871
0.030004852 -0.013415433 0.045305502
0.030012179 -0.014078151 0.04510396
0.036313456 -0.023621492 0.040921722
0.120708 -0.023057569 0.041242097
0.032802649 -0.02391519 0.040750772
0.020663997 -0.025734195 0.039627172
0.034306306 -0.024243511 0.040556304
0.034469847 -0.024240699 0.040557995
0.120708 0.023832085 0.040799428
0.123228 0.021734992 0.04195416
0.021294003 0.032287851 0.034497201
0.020664003 0.031878177 0.034876123
0.020663997 -0.033410791 -0.033410795
0.039672285 -0.03601829 -0.030581774
0.14032537 -0.035386015 -0.02281175
0.14043802 -0.033102263 -0.028053507
0.13958882 -0.036959257 -0.019412156
0.13974091 -0.036220942 -0.02209048
0.14401799 -0.020296831 -0.042296492
0.12700801 -0.022365002 -0.041621737
0.020663997 -0.021451047 -0.04210005
0.120708 -0.01874017 -0.04337474
0.13546722 -0.0083105117 -0.046398569
0.120708 -0.0079905493 -0.046569444
0.039672285 -0.010628933 -0.046038974
0.11858372 -0.014843601 -0.044857882
0.039672285 -0.016418489 -0.044305708
0.126378 -0.014175001 -0.045073617
0.021702573 -0.047022648 0.0046295696
0.021294 -0.0469881 0.0049679503
0.024569999 -0.047223747 -0.0015750008
0.020663997 -0.047248676 0.00035342228
0.13412701 -0.039059997 -0.01714943
0.021294 -0.0469881 -0.0049679545
0.024311669 -0.04719881 -0.0021986703
0.022961367 -0.047129609 -0.0033707824
0.020663997 -0.038226049 -0.027772853
0.13820496 -0.022630906 0.04020042
0.13717352 -0.013630511 0.044611424
0.137088 -0.013535542 0.044676524
0.0054179998 0.0036782189 0.047106601
0.0050070258 0.0032969408 0.047134843
0.037246939 0.00038880698 0.047248397
0.039672285 0.0011717719 0.047235463
0.038413201 0.0016364389 0.047221649
0.13735394 -0.0090748668 0.045677662
0.007100177 -0.0081603229 0.04654
0.021294003 -0.0088805957 0.046407934
0.11858372 -0.0087637911 0.046430141
0.038176063 -0.0038853593 0.047089979
0.014208184 -0.0097037442 0.046242826
0.030582469 -0.010934049 0.045967467
0.033593826 -0.012065341 0.045683578
0.12669267 -0.013860345 0.045171369
0.036842566 -0.01885418 0.043325301
0.021294001 -0.017176453 0.044017401
0.11858372 -0.014291155 0.045036923
0.020663997 -0.021451056 0.04210005
0.032058641 -0.021688683 0.041978125
0.034142766 -0.020034675 0.04279222
0.03241777 -0.019452065 0.04306018
0.031689916 -0.023038706 0.041252639
0.032201361 -0.022204071 0.04170781
0.137088 -0.026073571 0.038721722
0.137088 -0.026523009 0.038415268
0.13957423 -0.03696271 0.019596819
0.13948201 -0.03693644 0.020127105
0.14023827 -0.036223743 -0.015712583
0.13546722 0.038254492 -0.023002939
0.027179224 0.046615642 -0.0077164653
0.020664003 0.046668272 -0.0073915245
0.032034859 0.043327723 0.018848656
0.029196164 0.043047264 0.019480648
0.029569697 0.044845045 0.014882357
0.025814014 0.044474669 0.015955132
0.032820143 0.046218965 0.009816817
0.031554509 0.046028446 0.010674476
0.025174385 0.0426016 0.020436872
0.024918249 0.042545948 0.020552542
0.024532264 0.042203337 0.021247119
0.033224773 0.043416139 0.018644067
0.033872608 0.04319907 0.019141655
0.030743163 0.047166754 0.0028034912
0.033879943 0.04724393 0.00075736229
0.033841327 0.047221426 0.0016429164
0.025824234 0.047240611 0.00094144157
0.033109982 0.047057759 0.0042579207
0.020664003 0.046552476 0.0080888337
0.027535677 0.046516988 0.0082904892
0.026072966 0.046466585 0.0085684853
0.031287801 0.04636804 0.0090866284
0.032113552 0.046944235 0.0053667007
0.0277435 0.046962548 0.005203967
0.027114084 0.046749212 0.0068609789
0.032593027 0.046749212 0.0068609789
0.030823428 0.04703895 0.0044608717
0.025721172 0.046502192 -0.0083730789
0.030823428 0.04602709 -0.010680318
0.031220652 0.046270005 -0.0095733367
0.032805998 0.045900416 -0.011212229
0.027536394 0.047160067 -0.0029147898
0.033428591 0.047197569 -0.0022252677
0.033890001 0.047249783 -0.00014539015
0.025989367 0.047225077 -0.001534467
0.030722791 0.047062322 -0.0042071939
0.031591974 0.047136299 -0.0032758655
0.028895 0.046883877 -0.0058706249
0.02607297 0.046786353 -0.0066030091
0.031554613 0.047038384 -0.0044668256
0.033813886 0.03854892 0.027322942
0.038577132 0.039564896 0.025829842
0.033537727 0.038896393 0.026825979
0.024307491 0.039519805 0.025898783
0.032972854 0.039975468 0.025189765
0.033326901 0.040939845 0.023590064
0.029767361 0.0402142 0.024806859
0.02370318 0.03997666 0.025187872
0.035029817 0.041812111 0.022007035
0.037672129 0.041963719 0.021716611
0.034647275 0.041717447 0.022185959
0.020664003 0.041439496 0.022700891
0.027646644 0.045661546 0.012148786
0.033417616 0.045852557 0.011406357
0.029363247 0.045085859 0.014136043
0.029517554 0.044971175 0.014496739
0.025891898 0.045150585 0.013927937
0.030352602 0.045292068 0.013460721
0.03564737 0.011817652 0.045748278
0.023360262 0.01241544 0.045589678
0.03224859 0.013981023 0.045134164
0.030012324 0.013656542 0.045233406
0.020664003 0.01460105 0.044937413
0.032508001 0.014407948 0.044999696
0.120708 0.017421473 0.04392099
0.039672285 0.017901182 0.043727674
0.038451161 0.0067141526 0.046770528
0.037476409 0.0073762233 0.04667069
0.0074973037 0.0065668495 0.046791434
0.0079185246 0.0070767044 0.046717044
0.038097538 0.0083729047 0.046502218
0.0071001914 0.0081603127 0.04654
0.0066084168 0.0076961457 0.046618998
0.016342161 0.008909029 0.046402492
0.037348121 0.0094142724 0.046302628
0.0081127239 0.0085902363 0.046462558
0.033211946 0.010634831 0.046037618
0.031253792 0.010871137 0.045982387
0.031230053 0.011231446 0.045895714
0.037229907 0.00991596 0.046197787
0.037276864 0.010259189 0.046122774
0.023058003 0.0099255983 0.046195719
0.039672285 0.025515391 0.039768413
0.14043802 -0.012806343 0.042269662
0.13904504 -0.013210238 0.043602794
0.14013404 -0.022575965 0.038387563
0.13957423 0.036965828 0.019577578
0.038179126 0.0061587673 0.046846889
0.038436405 0.005572252 0.04692027
0.0047881855 0.0026086345 0.047177896
0.037477735 0.0028705688 0.047162712
0.021294003 0.0011717719 0.047235463
0.03837277 0.0022076212 0.047198385
0.038087018 0.0043500825 0.047049325
0.031400148 0.0045430027 0.04703109
0.0058526266 0.004095485 0.047072168
0.037040781 0.0039072726 0.047088169
0.0072736195 0.0059427698 0.046874784
0.023854557 0.0047218343 0.047013469
0.038155273 0.0046719033 0.047018461
0.037223797 0.0052734078 0.046954799
0.037653528 0.004881334 0.046997175
0.03381025 0.04235965 -0.020933753
0.026548412 0.043088559 -0.019389121
0.031588323 0.041720767 -0.022179712
0.13953419 0.03705037 -0.019331977
0.13948201 0.036941975 0.020107977
0.13945243 0.036973145 -0.020050567
0.13974069 0.03622121 -0.022090165
0.029806959 0.045597259 -0.012387595
0.028080286 0.045687541 -0.01205035
0.027137563 0.045384184 -0.013146797
0.027193034 0.043577436 -0.018263876
0.027127417 0.043685667 -0.01800346
0.033519126 0.044314213 -0.016395513
0.027114084 0.044328202 -0.01635766
0.033427209 0.044847123 -0.014876085
0.030312594 0.044836838 -0.014907049
0.033717364 0.044861559 -0.014832513
0.03387215 0.044882178 -0.01476998
0.120708 0.024445618 -0.040434808
0.020664003 0.014601054 -0.044937409
0.11858372 0.015750915 -0.044547398
0.12700801 0.012688922 -0.045514315
0.039672285 0.0096964259 -0.046244357
0.120708 0 -0.047249995
0.020663999 0.0073915324 -0.046668261
0.11858372 0.0079905447 -0.046569437
0.13412701 0.0088829976 -0.046407484
0.12700801 0.0088829976 -0.046407484
0.13735394 -2.3469329e-09 -0.046570387
0.13546722 -2.3469329e-09 -0.047136944
0.11858372 -0.0030178013 -0.047153525
0.11858372 0.0030178013 -0.047153525
0.025978379 0.043114234 -0.01933196
0.033800092 0.043141149 -0.019271826
0.020664003 0.038226049 0.027772853
0.038354948 0.038060971 0.027998656
0.11858372 -0.023057565 -0.0412421
0.123228 -0.021735001 -0.04195416
0.120708 -0.024445621 -0.040434808
0.11746439 -0.031255227 -0.035382513
0.026884677 0.038048569 -0.028015509
0.034746751 0.038358174 -0.027590077
0.033738017 0.037923038 -0.028185192
0.032035619 0.037768692 -0.028391687
0.034687486 0.037418194 -0.028852046
0.033985853 0.039489556 -0.025944892
0.028488217 0.038494188 -0.027399989
0.031668976 0.038653772 -0.027174404
0.027253719 0.039284911 -0.026253726
0.027103696 0.039764926 -0.025520822
0.0326133 0.039764926 -0.025520822
0.032463212 0.040234625 -0.024773723
0.031973023 0.040661115 -0.024067318
0.028901534 0.041044038 -0.023408318
0.0047887051 -0.0028053969 0.047166504
0.0051570032 -0.0036541675 0.047108572
0.03747854 -0.0032965792 0.04713485
0.038223814 -0.0015685232 0.047223948
0.007245 -0.0018741643 0.047212809
0.037223797 -0.0023142751 0.047193281
0.038451161 -0.0028656283 0.047163017
0.03777102 -0.00068773114 0.047244988
0.034290891 -0.0002315836 0.047249429
0.031292591 -0.00091888994 0.047241058
0.023059569 -0.0058443863 0.046887148
0.023196973 -0.0052675991 0.046955451
0.0059037698 -0.0043602493 0.047048375
0.035870943 -0.0060468772 0.046861473
0.0076860567 -0.0068406216 0.0467522
0.030111697 -0.013233278 0.045359038
0.030258024 -0.013681883 0.045225747
0.030299377 -0.014042671 0.04511502
0.036194839 -0.023701884 0.040875208
0.036537949 -0.023446305 0.041022338
0.037150465 -0.022690749 0.041445047
0.032542825 -0.023779564 0.040830072
0.033219445 -0.024078134 0.040654708
0.039672285 -0.024898862 0.040157299
0.039672285 -0.032443251 -0.034351099
0.13953419 -0.036895793 -0.0201234
0.12669362 -0.022050628 -0.041789141
0.039672285 -0.018003089 -0.04368582
0.13412701 -0.0083304411 -0.046509843
0.1355693 -0.0088830013 -0.046274021
0.020663999 -0.0073915245 -0.046668265
0.12700801 -0.012688925 -0.045514319
0.021294003 -0.0097537646 -0.046232305
0.11858372 -0.015750919 -0.044547398
0.12669267 -0.013860336 -0.045171369
0.020663997 -0.01460105 -0.044937413
0.022961367 -0.047129612 0.0033707728
0.021683754 -0.047004476 0.004810574
0.021294 -0.047001414 0.0048404224
0.021294 -0.047001414 -0.0048404317
0.024357015 -0.047210697 -0.0019267498
0.137088 -0.0090966029 0.045787051
0.03683079 0.0035984865 0.047112767
0.01338639 0.0031770689 0.047143057
0.037477735 0.0033565529 0.047130618
0.023065938 0.00051875197 0.047247149
0.037664633 0.00021151733 0.047249522
0.038152512 0.00057866686 0.047246452
0.038295772 0.00087230332 0.047241941
0.013379414 0.0015894275 0.047223233
0.038324442 0.0014840713 0.047226682
0.13735394 -0.013503199 0.044569775
0.038441163 -0.0084009096 0.04649717
0.0066611972 -0.0077593015 0.04660853
0.0073173894 -0.0082994923 0.046515379
0.016469875 -0.0087596886 0.046430916
0.038138948 -0.0090021044 0.046384528
0.023073234 -0.0088144848 0.046420544
0.038161352 -0.0039861249 0.047081556
0.014034724 -0.0096780434 0.04624822
0.030465366 -0.01035855 0.046100561
0.038167644 -0.0099830013 0.046183344
0.035907868 -0.011348506 0.045866914
0.023181919 -0.012200771 0.045647599
0.032844286 -0.018671663 0.043404281
0.037015695 -0.018618671 0.043427035
0.031250656 -0.017825823 0.043758452
0.039672285 -0.016418494 0.044305697
0.020663997 -0.014601054 0.044937409
0.030139247 -0.014326842 0.045025587
0.032049049 -0.021588957 0.042029496
0.03209082 -0.021882175 0.04187759
0.033982508 -0.020023134 0.042797618
0.034630109 -0.020023134 0.042797618
0.032937288 -0.019746805 0.042925816
0.036544383 -0.019174052 0.04318469
0.031532813 -0.022811627 0.041378643
0.031872764 -0.023251139 0.041133273
0.032289568 -0.022373691 0.041617054
0.037362084 -0.022182792 0.041719124
0.13951328 -0.03651616 0.021734469
0.13957423 -0.036847901 0.02010124
0.028930496 0.04299419 0.019597493
0.030684007 0.04483854 0.014901936
0.027083069 0.044880617 0.014774721
0.033581626 0.044243876 0.016584376
0.033190846 0.044755202 0.015150374
0.026597692 0.044253707 0.016558127
0.029858496 0.046296965 0.009442091
0.027127545 0.042808276 0.020000337
0.028018445 0.042449303 0.020751672
0.025130773 0.042596024 0.020448506
0.020664003 0.04210005 0.021451054
0.033687823 0.043322276 0.018861141
0.029806959 0.047172487 0.0027053894
0.033872318 0.047239784 0.00098256697
0.033886161 0.047246799 0.00054946629
0.033848137 0.047226388 0.0014936655
0.03377923 0.047221426 0.0016429164
0.026415618 0.047225259 0.0015288108
0.029412968 0.047050335 0.0043394039
0.032593027 0.046513122 -0.0083121462
0.032502174 0.046384811 -0.0090006609
0.027114084 0.046513122 -0.0083121462
0.028489647 0.046065181 -0.010514814
0.032113552 0.0462244 -0.0097911805
0.027743423 0.046190228 -0.0099511556
0.02983789 0.045992702 -0.010827453
0.033022024 0.047171284 -0.0027261316
0.029170705 0.047185 -0.0024774529
0.032561865 0.047249988 3.3687873e-05
0.029033134 0.047243871 -0.00076087797
0.029523861 0.047207013 -0.0020151141
0.028730223 0.04705663 -0.0042703263
0.028953565 0.047061339 -0.0042181117
0.027939346 0.04715804 -0.0029464851
0.032368433 0.047146004 -0.0031331929
0.029858496 0.046902407 -0.0057207239
0.031287767 0.046857137 -0.0060803914
0.02753561 0.046746008 -0.0068828217
0.033651706 0.038634825 0.027201336
0.03415212 0.038470134 0.027433749
0.028655032 0.039180472 0.026409484
0.028123898 0.039122228 0.026495567
0.023806296 0.039674383 0.025661355
0.032547481 0.03983986 0.025403759
0.028477255 0.041259825 0.023025827
0.029633479 0.040342167 0.024598209
0.03307423 0.040140055 0.024926651
0.028761907 0.04045118 0.02441852
0.037550427 0.042008664 0.021629469
0.033553056 0.04163786 0.022334972
0.026946576 0.045595314 0.01239479
0.032273524 0.045642935 0.012218205
0.028166488 0.045673296 0.012104241
0.033676829 0.045903694 0.011198882
0.025832238 0.045035474 0.01429574
0.027656062 0.045218855 0.013704664
0.030395042 0.04527605 0.013514502
0.030215837 0.045364354 0.013215056
0.025207415 0.012003739 0.045699805
0.035319906 0.011687532 0.045781694
0.035947062 0.011943239 0.045715652
0.030398546 0.013111214 0.045394469
0.023230745 0.012407813 0.045591749
0.035881963 0.012485969 0.045570415
0.029992888 0.0139092 0.045156348
0.029997777 0.013691741 0.045222767
0.123228 0.014174994 0.045073625
0.03224859 0.014410157 0.044998992
0.03816608 0.0066216644 0.046783708
0.038145117 0.0069095017 0.046742063
0.038200531 0.007304695 0.046681941
0.0061921808 0.0069518713 0.046735778
0.0073586428 0.006264891 0.046832822
0.034150187 0.0067055179 0.046771761
0.03777102 0.0085130781 0.046476763
0.0072478498 0.0082582515 0.046522722
0.030391753 0.0080761248 0.046554681
0.037807804 0.0078522833 0.046592962
0.0380546 0.0075715212 0.046639405
0.035881642 0.0088132024 0.04642079
0.032187048 0.0090441965 0.04637634
0.03749904 0.0095611848 0.046272513
0.015669433 0.0094272988 0.046299972
0.038430002 0.0092638796 0.046332952
0.030582469 0.010519393 0.046064135
0.03124221 0.010582408 0.046049695
0.037286442 0.010750559 0.046010733
0.03584978 0.010889164 0.045978121
0.030388692 0.011386748 0.045857433
0.03025501 0.011102058 0.045927186
0.037704743 0.0098161753 0.046219099
0.038430002 0.010009672 0.046177577
0.037650641 0.010149105 0.04614713
0.035551164 0.010373706 0.046097159
0.020664003 0.02573419 0.039627183
0.1392564 -0.013690848 0.043275446
0.13957423 0.036853313 0.020082513
0.038007364 0.0060974043 0.046854917
0.038313664 0.006273591 0.046831656
0.038336575 0.0054731555 0.046931937
0.03843585 0.0057226671 0.046902161
0.033900306 0.0030004738 0.047154631
0.030791553 0.0028588716 0.047163431
0.035916835 0.0026219676 0.047177192
0.03030264 0.0022905103 0.047194444
0.038445137 0.001968605 0.047208969
0.038144156 0.0044195256 0.04704285
0.035869755 0.0042931316 0.047054555
0.037499495 0.0045056557 0.047034681
0.028003119 0.0045953225 0.047026005
0.02739648 0.004540496 0.047031324
0.038344383 0.0041804411 0.047064699
0.013912031 0.0039634369 0.047083493
0.038019426 0.0039987136 0.047080487
0.037096828 0.0037733 0.047099087
0.037226312 0.0047451928 0.047011118
0.037488256 0.004707736 0.047014881
0.035910003 0.0046842783 0.047017224
0.024674732 0.0053794305 0.04694277
0.037397716 0.0049516056 0.046989828
0.033577323 0.042400956 -0.020849971
0.0258244 0.042364258 -0.020924438
0.020664003 0.042100053 -0.021451041
0.033872154 0.04235965 -0.020933753
0.03304917 0.043088131 -0.019390088
0.028087398 0.041701332 -0.02221624
0.02897322 0.041841675 -0.021950783
0.030743109 0.045622926 -0.012292729
0.029796571 0.045597259 -0.012387595
0.027180975 0.045432765 -0.012977901
0.027279213 0.043495651 -0.018457806
0.032904793 0.044324327 -0.016368147
0.033759251 0.044296656 -0.016442884
0.030312594 0.044328202 -0.01635766
0.03381025 0.044274312 -0.01650296
0.033778321 0.044871073 -0.014803675
0.020664003 0.044937417 -0.014601045
0.039672285 4.6938657e-09 -0.047249995
0.13735394 -0.0037102592 -0.046422362
0.033750623 0.043124013 -0.019310147
0.038186256 0.038040128 0.02802697
0.120708 -0.023057565 -0.0412421
0.035030708 0.037996579 -0.028085975
0.034894947 0.038175311 -0.027842565
0.027001478 0.037981823 -0.028105931
0.034959037 0.037574552 -0.028648142
0.029806959 0.03734288 -0.028949467
0.032524392 0.039384473 -0.026104132
0.030825352 0.038395446 -0.02753819
0.027739342 0.038826786 -0.026926624
0.031230785 0.039050721 -0.026600819
0.028481096 0.040457331 -0.02440832
0.028061492 0.040818591 -0.023799267
0.026890177 0.04128509 -0.022980506
0.03121509 0.04095735 -0.023559662
0.037778951 -0.0035201295 0.047118686
0.038152575 -0.0037548274 0.047100566
0.038230892 -0.0033966431 0.047127742
0.038139161 -0.0012273965 0.047234051
0.032465354 -0.0017459749 0.047217727
0.023058003 -0.0024760191 0.047185075
0.038070254 -0.0028656283 0.047163017
0.03837277 -0.00075415405 0.047243975
0.038218662 -0.00055682153 0.047246713
0.039672285 -0.00028825499 0.047249116
0.03586901 -0.00013404037 0.047249805
0.021294003 -0.00028825499 0.047249116
0.030049959 -0.00055587344 0.047246724
0.032182578 -0.0056931968 0.046905752
0.0072736191 -0.005942774 0.046874784
0.023134215 -0.0053038197 0.046951372
0.038430002 -0.005121585 0.046971604
0.026763886 -0.0046917843 0.047016472
0.038874395 -0.0043178615 0.047052287
0.0057390705 -0.0041191136 0.047070105
0.035903376 -0.0062737879 0.04683163
0.0074973027 -0.0065668612 0.046791427
0.038430002 -0.0072403396 0.046691965
0.030659692 -0.013378019 0.045316558
0.031233499 -0.013204669 0.045367375
0.030307686 -0.013558036 0.045263022
0.029950943 -0.013735247 0.045209568
0.031627856 -0.013887531 0.045163024
0.032211531 -0.014051817 0.045112178
0.036041018 -0.022648564 0.041468117
0.03241777 -0.023701882 0.040875208
0.032671161 -0.023848772 0.040789679
0.036069788 -0.023779565 0.040830072
0.032937288 -0.023976 0.040715028
0.033671577 -0.024188468 0.040589165
0.021294001 -0.032443251 -0.034351099
0.11858372 -0.0079905493 -0.046569444
0.120708 -0.012688925 -0.045514319
0.039672285 -0.0097537646 -0.046232305
0.11858372 -0.0090041645 -0.046384122
0.123228 -0.014175001 -0.045073617
0.024311669 -0.04719881 0.0021986654
0.023050431 -0.047123156 0.0034599002
0.021791669 -0.047013793 0.0047186632
0.021430682 -0.046991359 -0.0049370546
0.021791669 -0.047013789 -0.0047186706
0.024222571 -0.047202885 -0.0021095758
0.031524785 0.0036281846 0.047110491
0.036906376 0.0035834264 0.047113918
0.036737088 0.0032711246 0.047136627
0.038430002 0.0033934913 0.047127973
0.035415497 0.0033879688 0.047128376
0.023181919 0.00033352262 0.047248818
0.023058003 0.00071103382 0.047244642
0.038249467 0.00010216434 0.04724988
0.038024463 0.00030104813 0.047249034
0.038451161 0.00046256403 0.04724773
0.038230676 0.00093853142 0.047240671
0.038088109 0.00068375777 0.047245044
0.030284474 0.0017413679 0.047217894
0.033684541 0.0015715556 0.047223847
0.030124076 0.0013709796 0.047230098
0.038223814 0.0013935923 0.047229432
0.038451161 -0.0085059339 0.04647807
0.015519898 -0.0079978546 0.046568185
0.038430002 -0.0075329607 0.046645649
0.014385112 -0.0084475465 0.046488717
0.03809372 -0.0082282014 0.046528045
0.037561096 -0.0086753061 0.046446759
0.023058003 -0.0090213688 0.046380777
0.0351642 -0.0091272434 0.046360061
0.0324874 -0.0089417128 0.046396203
0.034279414 -0.0088547748 0.046412867
0.034020003 -0.0088200774 0.046419479
0.037824586 -0.0087835388 0.046426412
0.038415853 -0.0040422375 0.047076769
0.037500296 -0.0039409483 0.04708536
0.030427778 -0.010342676 0.046104133
0.03124221 -0.010871145 0.045982387
0.033454251 -0.010078984 0.046162497
0.038449366 -0.0098022157 0.046222053
0.030115331 -0.01118782 0.045906365
0.035857886 -0.011564124 0.04581302
0.023059938 -0.01192609 0.045720138
0.030462954 -0.013035465 0.045416277
0.035908587 -0.012497355 0.045567289
0.031532813 -0.018494848 0.043479908
0.032985367 -0.018783575 0.04335596
0.036932409 -0.018736437 0.043376353
0.037281826 -0.018104527 0.043643873
0.031186555 -0.017540298 0.043873686
0.11858372 -0.015750924 0.04454739
0.037474267 -0.017092859 0.04404993
0.030119043 -0.01429842 0.045034621
0.032356873 -0.014440493 0.044989266
0.032047469 -0.021537587 0.042055845
0.031154502 -0.021628791 0.042009018
0.036432199 -0.021882175 0.04187759
0.036451384 -0.021785486 0.041927975
0.031167246 -0.021771261 0.041935354
0.031215452 -0.022046851 0.041791122
0.034469847 -0.020034675 0.04279222
0.034944315 -0.019976605 0.042819355
0.034787212 -0.020002786 0.042807132
0.032671161 -0.019609712 0.042988617
0.03336696 -0.019903958 0.042853173
0.03524578 -0.01900691 0.043258518
0.032183692 -0.019270768 0.043141618
0.031462274 -0.022690749 0.041445047
0.031606633 -0.02292669 0.041314993
0.035906248 -0.022791959 0.041389473
0.031776488 -0.023147807 0.041191518
0.031968918 -0.023348734 0.041077953
0.037269082 -0.022442855 0.041579809
0.032243066 -0.022290345 0.041661762
0.031343658 -0.022442849 0.041579805
0.029103156 0.043035164 0.019507365
0.033981465 0.042971533 0.019647127
0.033872236 0.044789501 0.015048702
0.020664003 0.044937417 0.014601056
0.033751264 0.044231325 0.016617827
0.027103696 0.044749897 0.015166033
0.020664003 0.044598483 0.01560569
0.02672682 0.044254769 0.016555293
0.026007762 0.044237215 0.016602144
0.030384481 0.046305839 0.0093985721
0.027875757 0.042716656 0.020195365
0.028727815 0.042842895 0.019926079
0.025805909 0.047248349 0.00039492073
0.026058204 0.047224138 0.0015629752
0.026811447 0.047225632 0.0015173132
0.031657923 0.04612508 -0.010248866
0.029848278 0.045992702 -0.010827453
0.029413011 0.045999378 -0.010799132
0.028619997 0.047165792 -0.0028196636
0.02993341 0.047191031 -0.0023598459
0.032489549 0.047249954 6.4432694e-05
0.032573719 0.047249965 -5.7009347e-05
0.032582469 0.047248717 -0.00034833883
0.025903843 0.047234651 -0.001204406
0.031851631 0.04722172 -0.0016348501
0.030960171 0.047143038 -0.0031774538
0.030384431 0.046897031 -0.0057648113
0.032010037 0.046776153 -0.0066748462
0.028956557 0.039445084 0.026012449
0.02844855 0.039129797 0.026484599
0.023716372 0.039771874 0.025510026
0.023968842 0.039593641 0.025785768
0.032860436 0.03990005 0.025309063
0.03029863 0.040054459 0.025063965
0.033151291 0.040384155 0.024529573
0.036991477 0.042020824 0.021605849
0.033872236 0.045549382 0.012562504
0.02903525 0.045634508 0.012249653
0.029879272 0.045948524 0.011013426
0.027167892 0.045046311 0.014261556
0.029162355 0.04516165 0.013892014
0.02879444 0.045230471 0.013666255
0.030374523 0.04527605 0.013514502
0.030307313 0.045319423 0.01336833
0.030013243 0.04544358 0.012939979
0.030231444 0.011866752 0.045735564
0.029950943 0.011740319 0.045768183
0.034964658 0.011605178 0.045802638
0.035904422 0.011682812 0.045782898
0.03567902 0.01190528 0.045725551
0.035943434 0.012008485 0.045698557
0.032508001 0.013126232 0.045390133
0.03065506 0.013169616 0.045377564
0.023058003 0.012285768 0.045624793
0.035869755 0.012236796 0.045637954
0.034419939 0.012372223 0.045601428
0.035852097 0.012754778 0.045495909
0.030002693 0.01395057 0.045143589
0.029988 0.013814445 0.045185428
0.03238003 0.014475765 0.044977929
0.038130231 0.0065241116 0.04679741
0.038446832 0.0068054902 0.046757326
0.038102698 0.0069900113 0.046730094
0.037337597 0.0072520622 0.046690147
0.016015075 0.0073409248 0.046676256
0.0062876958 0.0071848067 0.046700545
0.026131567 0.0069051762 0.046742707
0.03030432 0.0064048409 0.046813887
0.024904244 0.0061957315 0.04684202
0.035910003 0.0067596431 0.046763968
0.035904162 0.0066635599 0.046777762
0.03837277 0.0084477263 0.046488687
0.037334204 0.0086134123 0.046458274
0.038445137 0.0082122199 0.046530865
0.035687648 0.0080480734 0.046559539
0.035100948 0.007936785 0.046578635
0.030231444 0.0078816963 0.046587989
0.035689183 0.0074676825 0.046656143
0.0088068061 0.0074971206 0.046651423
0.037441146 0.0077204765 0.046614978
0.031253792 0.008878082 0.046408422
0.025930598 0.0087697757 0.046429012
0.038430002 0.0089705903 0.04639063
0.037477735 0.009655864 0.04625285
0.037696958 0.0094934823 0.046286456
0.030235156 0.0095825829 0.046268087
0.037916172 0.009330987 0.046319485
0.030075725 0.0092943823 0.046326842
0.037223797 0.0091386922 0.046357807
0.038430002 0.010461585 0.046077296
0.033204705 0.010725128 0.04601666
0.035869569 0.010604946 0.046044514
0.037806071 0.010547657 0.046057671
0.031912416 0.010933748 0.045967542
0.037357621 0.01081044 0.045996699
0.034209322 0.011456173 0.045840137
0.030075725 0.011283531 0.045882937
0.032187048 0.01103571 0.045943167
0.032375056 0.011181537 0.045907896
0.03776937 0.0098085823 0.046220705
0.023072096 0.0098416256 0.046213679
0.034301139 0.0099586444 0.046188608
0.029999219 0.010065786 0.046165377
0.037869863 0.010087841 0.04616056
0.037565589 0.010212245 0.046133198
0.037502166 0.010303111 0.046112988
0.037894681 0.0060881129 0.046856131
0.031910036 0.0061387364 0.046849526
0.038395289 0.0055135367 0.04692721
0.038260706 0.0054580295 0.046933692
0.038451161 0.0056471643 0.04691131
0.038395111 0.0057805944 0.046895061
0.037223797 0.0029058831 0.047160555
0.033609882 0.003057441 0.04715097
0.031884674 0.0027783555 0.04716824
0.023058003 0.0026552493 0.047175329
0.038218662 0.0024047354 0.047188755
0.0072450005 0.0018894359 0.047212202
0.038451161 0.0018683322 0.047213044
0.038097538 0.00213167 0.047201879
0.03764502 0.0044541499 0.047039587
0.034419939 0.0044328026 0.047041602
0.03553924 0.0043863659 0.047045954
0.037271671 0.004337118 0.047050521
0.037207451 0.0045363395 0.04703173
0.0384393 0.0045826635 0.047027241
0.034147795 0.0046256781 0.047023028
0.034527384 0.0044775093 0.047037367
0.03139624 0.0045194631 0.047033351
0.034020003 0.0041302498 0.047069129
0.035651799 0.0042187693 0.047061279
0.014238 0.0040295757 0.047077853
0.037873849 0.0039842003 0.047081716
0.03673083 0.0036984 0.047105029
0.03708151 0.0038491085 0.047092956
0.013636791 0.0037793834 0.047098599
0.038276583 0.0048279506 0.047002692
0.038874395 0.0047437381 0.047011264
0.023562027 0.0054682549 0.046932507
0.032095719 0.0053562149 0.046945427
0.024166329 0.0050973576 0.046974234
0.037770689 0.0048993183 0.046995305
0.037223797 0.0049762675 0.046987221
0.029137706 0.042423423 -0.020804221
0.033749744 0.042380169 -0.02089219
0.029177735 0.043081976 -0.01940375
0.02723586 0.045462176 -0.012874504
0.027279213 0.043523677 -0.018391622
0.033245418 0.044320639 -0.016378136
0.033668898 0.044306628 -0.016416015
0.033794537 0.044287629 -0.01646716
0.025903573 0.043133546 -0.019288836
0.025896441 0.043136913 -0.019281311
0.033624139 0.04310653 -0.019349139
0.037874121 0.038051724 0.028011221
0.033006925 0.038301457 -0.027668769
0.035182606 0.037706438 -0.028474312
0.030982701 0.037450906 -0.028809581
0.034140427 0.037165135 -0.029177299
0.029415181 0.038324025 -0.027637534
0.033165891 0.038436916 -0.027480287
0.027540699 0.040533546 -0.02428155
0.029858496 0.041118622 -0.023277054
0.028043462 -0.0035642518 0.047115371
0.037477735 -0.0038079151 0.047096308
0.03749064 -0.0037158893 0.047103658
0.038295247 -0.0034615172 0.047123022
0.038413201 -0.0013256674 0.047231395
0.038451161 -0.0010936918 0.047237337
0.034460459 -0.0011415412 0.0472362
0.0380546 -0.0016429399 0.047221426
0.023152713 -0.0017473972 0.047217671
0.03721942 -0.001866525 0.047213115
0.023058003 -0.0021232255 0.047202263
0.038260706 -0.0026755012 0.047174186
0.029696165 -0.0028044041 0.047166694
0.038085639 -0.0029423966 0.04715829
0.038097538 -0.00083017349 0.047242697
0.037858512 -0.00069586793 0.047244869
0.038025729 -0.00043571513 0.04724798
0.038430002 -0.00022220057 0.047249466
0.026414761 -1.9655563e-05 0.047249984
0.027586125 -0.0001320267 0.047249805
0.03248857 -0.00025692579 0.047249295
0.031653389 -0.00073861965 0.047244217
0.030007597 -0.00052395515 0.047247089
0.034364007 -0.00064292818 0.047245622
0.025667176 -0.0003925926 0.047248356
0.032026239 -0.005632259 0.04691311
0.023725059 -0.0057483735 0.046899024
0.03584978 -0.0060425303 0.046862029
0.032250628 -0.005689017 0.046906259
0.02307586 -0.0060099531 0.046866223
0.02306857 -0.0054705059 0.046932243
0.037223797 -0.0049512843 0.046989858
0.035744626 -0.005301672 0.046951611
0.030344438 -0.0051538246 0.04696808
0.031703558 -0.0045376536 0.047031607
0.038249802 -0.0042296117 0.047060303
0.013912031 -0.0039634439 0.047083497
0.035910003 -0.0061860713 0.046843294
0.034314867 -0.0067034881 0.046772059
0.0073586423 -0.0062649003 0.046832822
0.0060492805 -0.0061930586 0.046842378
0.006220907 -0.0070291273 0.046724223
0.030778678 -0.013385958 0.045314219
0.031800408 -0.013663759 0.045231227
0.030377436 -0.013475985 0.045287527
0.03721457 -0.022569671 0.041511104
0.035810094 -0.023915194 0.040750772
0.120708 -0.023832103 0.040799424
0.035941582 -0.023848774 0.040789679
0.033078365 -0.024031216 0.040682461
0.03336696 -0.024122311 0.040628511
0.033825405 -0.02421318 0.040574424
0.034941159 -0.024188468 0.040589165
0.12700801 -0.0088830013 -0.046407484
0.024529628 -0.047214229 0.0018381883
0.021514822 -0.047008935 0.0047667497
0.021514822 -0.047008935 -0.0047667595
0.024469221 -0.047208328 -0.0019840314
0.031442489 0.0036376356 0.047109768
0.034151979 0.0035649769 0.047115318
0.031806488 0.003203986 0.047141239
0.031210946 0.0032955492 0.047134925
0.035220779 0.0034199294 0.047126066
0.037223797 0.00339217 0.047128074
0.02309751 0.00039670439 0.04724833
0.026776126 0.00015469574 0.047249742
0.023069736 0.00091898616 0.047241054
0.037491262 0.00062012539 0.047245927
0.027867077 4.1200405e-05 0.047249973
0.038124483 0.00027216677 0.047249213
0.038165018 0.00035884371 0.047248632
0.037500169 0.00039187208 0.047248367
0.037477735 0.00052538206 0.047247075
0.038010661 0.0010691829 0.047237899
0.037978835 0.0007697189 0.047243726
0.035201337 0.0017011156 0.047219362
0.015726589 0.0015894345 0.047223255
0.037881788 0.0015973812 0.047222983
0.029994726 0.0014546759 0.047227599
0.034988169 0.0012626663 0.04723312
0.03844887 -0.0084598819 0.046486478
0.031558268 -0.0080748294 0.046554904
0.032274872 -0.007884779 0.046587471
0.037477735 -0.0076791574 0.046621803
0.0088068042 -0.0074971267 0.046651416
0.035794806 -0.0073849214 0.046669316
0.013972806 -0.0084203416 0.046493649
0.030585576 -0.0085138362 0.046476621
0.038412448 -0.008307131 0.046514012
0.015178367 -0.00823054 0.046527628
0.037634235 -0.0087354556 0.046435487
0.023120115 -0.0086833099 0.046445262
0.037205447 -0.008568245 0.04646663
0.037926104 -0.0090685179 0.046371583
0.038261402 -0.0094396919 0.04629745
0.032499354 -0.0089554936 0.046393551
0.035943434 -0.0088914745 0.046405863
0.023063622 -0.0088802613 0.046408005
0.035925899 -0.0087975794 0.046423752
0.037961084 -0.0087607587 0.046430718
0.038115371 -0.0040712785 0.047074262
0.035893533 -0.010381473 0.046095412
0.030549673 -0.010365592 0.046098981
0.031927172 -0.01095278 0.045963012
0.033541135 -0.010058044 0.046167064
0.03065506 -0.010252013 0.04612438
0.038119022 -0.010092519 0.046159536
0.038176063 -0.009902047 0.046200771
0.037534017 -0.0097137932 0.046240717
0.03030432 -0.011038305 0.045942541
0.030615842 -0.011288593 0.045881692
0.035857886 -0.011245514 0.045892272
0.032262653 -0.011869552 0.045734838
0.035903364 -0.011492283 0.045831099
0.023090729 -0.012126477 0.045667391
0.031012578 -0.013091885 0.045400053
0.035848044 -0.012361804 0.045604248
0.035848044 -0.012719101 0.045505892
0.031606633 -0.018618671 0.043427035
0.031689916 -0.018736437 0.043376353
0.033059061 -0.018833581 0.043334257
0.035643399 -0.018780563 0.043357268
0.035784479 -0.018668761 0.043405522
0.037224159 -0.018237788 0.043588363
0.037329905 -0.017965265 0.043701384
0.031343658 -0.018104527 0.043643873
0.037410162 -0.017686196 0.043815069
0.032116432 -0.01736757 0.043942343
0.031215452 -0.017686196 0.043815069
0.03115122 -0.017092859 0.04404993
0.039672285 -0.017176453 0.044017397
0.123228 -0.01417501 0.045073617
0.030456565 -0.014311928 0.045030329
0.030445226 -0.014386684 0.045006502
0.03115122 -0.021483265 0.042083625
0.036473844 -0.021588957 0.042029496
0.032053847 -0.021638833 0.042003848
0.032081164 -0.021833844 0.04190281
0.032065079 -0.021737101 0.041953076
0.037445366 -0.021771267 0.041935358
0.031186555 -0.021910576 0.041862734
0.031250656 -0.022182792 0.041719124
0.032802649 -0.019679718 0.042956613
0.036076225 -0.019533902 0.043023117
0.032542825 -0.019533902 0.043023117
0.033078365 -0.01980502 0.042898986
0.033517625 -0.019944575 0.042834286
0.035412468 -0.018927626 0.043293267
0.031968918 -0.019071469 0.04323009
0.036650255 -0.019071469 0.04323009
0.032074668 -0.019174052 0.04318469
0.032299157 -0.019364396 0.043099675
0.036435355 -0.019270768 0.043141618
0.032488313 -0.022648562 0.041468117
0.032853879 -0.022979856 0.041285452
0.035832554 -0.022856483 0.041353881
0.035973635 -0.022721734 0.041428071
0.035325907 -0.023184104 0.0411711
0.033027012 -0.023089038 0.041224483
0.032074668 -0.023446305 0.041022338
0.036643818 -0.023348734 0.041077953
0.036210865 -0.02241464 0.041595019
0.03625907 -0.02233273 0.041639064
0.03630387 -0.022247944 0.041684419
0.031292297 -0.022312932 0.041649673
0.032366544 -0.022496469 0.041550823
0.029568586 0.04479764 0.015024432
0.033700585 0.044770051 0.015106445
0.025935695 0.044227172 0.016628886
0.032464586 0.044751026 0.015162717
0.031296235 0.04425808 0.016546436
0.026251627 0.044248365 0.016572399
0.028733386 0.042677954 0.020276941
0.027659856 0.042811323 0.019993823
0.028801823 0.042930853 0.019735871
0.020664003 0.047248676 0.00035343168
0.026189687 0.04722476 0.0015442373
0.025981605 0.047223415 0.0015846561
0.033377644 0.047225017 0.001536293
0.02753613 0.047225844 0.0015105729
0.030338304 0.047165088 -0.0028314102
0.032519158 0.047249954 6.3923406e-05
0.020664003 0.047249999 2.3469329e-09
0.032427892 0.047237862 -0.0010705559
0.027072681 0.047248717 -0.00034833883
0.025846526 0.04724234 -0.00085033837
0.028467139 0.047230128 -0.001370874
0.029652216 0.047220159 -0.0016789699
0.03144753 0.04721906 -0.001709696
0.028816793 0.039270509 0.026275259
0.028958736 0.039860327 0.025371607
0.028999314 0.039732091 0.025571929
0.032721978 0.039856572 0.025377497
0.029958982 0.040124688 0.024951378
0.0297515 0.045521561 0.012662938
0.033777103 0.04592653 0.011104841
0.027380899 0.045155894 0.0139107
0.027998494 0.045252021 0.013594751
0.033830855 0.045460504 0.012880411
0.026384022 0.045466281 0.012859985
0.0304131 0.011932708 0.045718402
0.035586305 0.011744251 0.045767177
0.030210355 0.011721244 0.04577307
0.03440284 0.011617986 0.045799393
0.030235156 0.011568929 0.04581181
0.035100948 0.011884966 0.045730837
0.025709717 0.012061527 0.045684587
0.032501467 0.011984998 0.045704726
0.03238003 0.013057798 0.045409862
0.030672865 0.013132123 0.045388423
0.03035859 0.013626603 0.045242429
0.023083398 0.012352851 0.045606673
0.03553924 0.012327207 0.045613617
0.035437495 0.012424631 0.045587175
0.027982038 0.012398543 0.045594279
0.035910003 0.012615889 0.045534614
0.030549673 0.013057798 0.045409862
0.030020736 0.013975306 0.045135938
0.029988395 0.0137619 0.045201454
0.032263435 0.014445928 0.044987522
0.034563366 0.0065587759 0.046792571
0.016191 0.0065338966 0.04679605
0.037481386 0.0068764384 0.046746943
0.038067039 0.0070331101 0.046723627
0.026367642 0.0069688344 0.046733264
0.037609663 0.0071154898 0.046711143
0.017004356 0.0073710894 0.046671499
0.0081892321 0.0072691389 0.046687488
0.037875172 0.0063817846 0.046817034
0.034316473 0.0062308349 0.046837363
0.038176063 0.006723972 0.046769112
0.037507448 0.0066416184 0.046780884
0.037627112 0.0083948392 0.046498265
0.037658222 0.0084945671 0.046480153
0.035903856 0.0085968999 0.046461329
0.016804313 0.0081968131 0.046533585
0.038176063 0.0081338957 0.046544623
0.038154472 0.0082740001 0.046519917
0.032116331 0.0080589084 0.046557661
0.032501467 0.0080021592 0.046567447
0.03817137 0.0080733132 0.046555165
0.03567902 0.0079574734 0.046575107
0.034334823 0.0078117815 0.046599768
0.03807693 0.0079084411 0.046583459
0.0304131 0.0079488847 0.046576571
0.037896667 0.0075538382 0.046642274
0.035220779 0.0074313479 0.046661943
0.030235156 0.0075784107 0.046638284
0.038223814 0.0076450068 0.046627417
0.035871267 0.0088199629 0.046419501
0.026131567 0.008805275 0.046422292
0.026387259 0.0087065976 0.046440903
0.030568443 0.008961848 0.046392322
0.037241057 0.0095765153 0.046269346
0.034969635 0.0096593583 0.046252124
0.037568595 0.0094593456 0.046293445
0.01502221 0.0096627558 0.046251412
0.032082554 0.0095122447 0.046282601
0.037663836 0.0093933037 0.046306886
0.031230053 0.0092417961 0.046337362
0.03451062 0.0093710413 0.046311397
0.035006113 0.0092962999 0.046326458
0.03025501 0.0091111725 0.046363223
0.031927172 0.01050062 0.046068411
0.037477735 0.010404504 0.046090215
0.035903376 0.010662063 0.046031315
0.035910003 0.010748252 0.046011273
0.033234417 0.010575882 0.046051197
0.035882033 0.010612389 0.046042796
0.037533619 0.010533521 0.046060901
0.033266664 0.010889164 0.045978121
0.038430002 0.010752859 0.046010192
0.037704561 0.010852645 0.04598676
0.032082554 0.011499281 0.045829341
0.029996106 0.011443243 0.045843363
0.035689183 0.011424196 0.045848113
0.035415497 0.011357391 0.045864712
0.029950943 0.0097556952 0.046231899
0.014862804 0.00969218 0.046245255
0.034358945 0.009863439 0.046209034
0.030289408 0.0099892132 0.046182003
0.0304131 0.009950052 0.046190463
0.034020003 0.010040493 0.046170879
0.030615842 0.010163462 0.046143971
0.030391753 0.010076232 0.046163097
0.035855841 0.010332481 0.046106417
0.030115331 0.010264756 0.046121545
0.034117259 0.0059755798 0.046870615
0.037646156 0.0061329063 0.046850286
0.030615842 0.0061495462 0.046848107
0.034048207 0.0061260508 0.04685118
0.032262653 0.0055549298 0.046922322
0.016191 0.0056614471 0.046909593
0.035910003 0.0055816541 0.046919152
0.038336016 0.0058213416 0.04689002
0.036737088 0.0029732026 0.047156356
0.031579081 0.0028937543 0.0471613
0.032128353 0.0030232673 0.047153179
0.03050513 0.0031288909 0.047146276
0.032304469 0.0028286621 0.047165249
0.038430002 0.0027388704 0.04717055
0.03205495 0.0026274733 0.047176883
0.030542167 0.0027189099 0.047171697
0.037858512 0.0022658512 0.047195632
0.038025729 0.0025256823 0.047182441
0.023330152 0.0024077771 0.047188602
0.038139161 0.0017346838 0.04721814
0.03817137 0.0018277022 0.047214631
0.033813443 0.001912586 0.047211271
0.038154472 0.0020312867 0.047206312
0.033363409 0.0022027397 0.04719862
0.038451161 0.0044791661 0.04703721
0.037567612 0.0044006328 0.047044616
0.037998129 0.0042985226 0.047054064
0.038448684 0.0045239292 0.047032923
0.038176063 0.0045512449 0.047030292
0.031473853 0.004585064 0.047027007
0.02651953 0.004655472 0.047020085
0.031653337 0.004535309 0.047031827
